ply
format ascii 1.0
element vertex 1150
property float x
property float y
property float z
property uchar red
property uchar green
property uchar blue
end_header
1.582090 0.238806 -15.283582 186 207 184 
1.687500 0.250000 -16.000000 187 206 191 
3.437500 0.500000 -32.000000 186 205 191 
3.500000 0.500000 -32.000000 187 206 192 
3.562500 0.500000 -32.000000 186 206 192 
2.416667 0.333333 -21.333334 185 205 189 
2.458333 0.333333 -21.333334 184 204 185 
2.500000 0.333333 -21.333334 184 203 186 
1.906250 0.250000 -16.000000 186 203 189 
1.937500 0.250000 -16.000000 187 204 189 
1.852941 0.235294 -15.058824 186 203 188 
1.878899 0.234862 -15.031193 192 210 194 
1.908257 0.234862 -15.031193 143 159 144 
1.506419 0.182596 -11.686163 50 54 46 
1.921292 0.129162 -8.266397 210 216 188 
1.912351 0.127490 -8.159363 210 215 189 
1.920635 0.126984 -8.126985 211 215 187 
1.932673 0.126733 -8.110891 211 216 187 
1.942744 0.126357 -8.086871 211 215 187 
1.948919 0.125737 -8.047152 212 216 188 
1.956947 0.125245 -8.015656 208 213 184 
1.968750 0.125000 -8.000000 207 214 184 
1.984375 0.125000 -8.000000 208 214 189 
2.001955 0.125122 -8.007820 185 185 165 
11.187500 0.500000 -32.000000 184 164 122 
11.250000 0.500000 -32.000000 185 164 125 
11.312500 0.500000 -32.000000 185 165 125 
11.375000 0.500000 -32.000000 185 165 124 
11.437500 0.500000 -32.000000 186 166 124 
11.500000 0.500000 -32.000000 187 168 121 
11.562500 0.500000 -32.000000 186 167 119 
11.625000 0.500000 -32.000000 187 169 121 
11.687500 0.500000 -32.000000 186 168 122 
11.750000 0.500000 -32.000000 185 167 121 
11.812500 0.500000 -32.000000 181 162 116 
11.875000 0.500000 -32.000000 180 161 116 
18.375000 0.500000 -32.000000 34 30 42 
18.437500 0.500000 -32.000000 38 34 48 
18.500000 0.500000 -32.000000 40 35 52 
18.562500 0.500000 -32.000000 37 32 51 
18.625000 0.500000 -32.000000 34 29 47 
18.687500 0.500000 -32.000000 35 30 47 
18.750000 0.500000 -32.000000 31 26 42 
18.812500 0.500000 -32.000000 40 35 49 
18.875000 0.500000 -32.000000 41 35 48 
18.937500 0.500000 -32.000000 39 32 46 
-4.062500 0.437500 -32.000000 255 255 255 
-4.000000 0.437500 -32.000000 255 255 255 
-3.937500 0.437500 -32.000000 255 255 255 
-3.875000 0.437500 -32.000000 255 255 255 
-3.812500 0.437500 -32.000000 255 255 255 
-3.750000 0.437500 -32.000000 255 255 255 
-3.687500 0.437500 -32.000000 255 255 255 
-3.625000 0.437500 -32.000000 255 255 255 
-3.562500 0.437500 -32.000000 255 255 255 
0.750000 0.437500 -32.000000 186 205 194 
0.812500 0.437500 -32.000000 186 205 194 
0.875000 0.437500 -32.000000 186 205 193 
0.937500 0.437500 -32.000000 188 207 195 
1.000000 0.437500 -32.000000 189 209 196 
1.062500 0.437500 -32.000000 186 207 193 
1.413534 0.210526 -15.398497 187 205 189 
1.435514 0.209346 -15.312150 184 201 186 
1.443831 0.206262 -15.086556 186 204 190 
1.473297 0.206262 -15.086556 188 206 193 
1.505535 0.206642 -15.114391 189 207 189 
1.535055 0.206642 -15.114391 186 206 183 
1.582090 0.208955 -15.283582 184 204 185 
1.687500 0.218750 -16.000000 185 204 190 
3.437500 0.437500 -32.000000 186 206 191 
3.500000 0.437500 -32.000000 185 205 190 
3.562500 0.437500 -32.000000 184 204 190 
2.416667 0.291667 -21.333334 186 205 189 
2.458333 0.291667 -21.333334 185 203 186 
2.500000 0.291667 -21.333334 184 204 187 
1.876923 0.215385 -15.753846 184 202 187 
1.907692 0.215385 -15.753846 185 202 187 
1.852941 0.205882 -15.058824 185 202 187 
1.878899 0.205505 -15.031193 189 204 189 
1.483595 0.159772 -11.686163 149 159 150 
1.506419 0.159772 -11.686163 54 58 66 
1.529244 0.159772 -11.686163 65 67 80 
1.925177 0.113246 -8.283114 210 217 190 
1.912351 0.111554 -8.159363 210 215 188 
1.920635 0.111111 -8.126985 211 215 187 
1.934589 0.111001 -8.118930 214 218 189 
1.942744 0.110563 -8.086871 213 216 187 
1.947007 0.109912 -8.039254 211 214 184 
1.953125 0.109375 -8.000000 209 212 181 
1.968750 0.109375 -8.000000 211 214 181 
1.984375 0.109375 -8.000000 212 213 186 
2.001955 0.109482 -8.007820 190 187 167 
11.187500 0.437500 -32.000000 183 162 123 
11.250000 0.437500 -32.000000 182 160 124 
11.312500 0.437500 -32.000000 185 165 126 
11.375000 0.437500 -32.000000 184 167 124 
11.437500 0.437500 -32.000000 182 165 121 
11.500000 0.437500 -32.000000 184 167 121 
11.562500 0.437500 -32.000000 187 170 123 
11.625000 0.437500 -32.000000 190 172 127 
11.687500 0.437500 -32.000000 189 170 124 
11.750000 0.437500 -32.000000 186 166 119 
11.812500 0.437500 -32.000000 183 163 113 
11.875000 0.437500 -32.000000 176 156 107 
18.250000 0.437500 -32.000000 36 31 45 
18.312500 0.437500 -32.000000 40 35 54 
18.375000 0.437500 -32.000000 36 30 51 
18.437500 0.437500 -32.000000 38 31 55 
18.500000 0.437500 -32.000000 41 34 58 
18.562500 0.437500 -32.000000 38 32 54 
18.625000 0.437500 -32.000000 31 25 42 
18.687500 0.437500 -32.000000 34 29 44 
18.750000 0.437500 -32.000000 36 29 44 
18.812500 0.437500 -32.000000 35 28 41 
-4.062500 0.375000 -32.000000 255 255 255 
-4.000000 0.375000 -32.000000 255 255 255 
-3.937500 0.375000 -32.000000 255 255 255 
-3.875000 0.375000 -32.000000 255 255 255 
-3.812500 0.375000 -32.000000 255 255 255 
-3.750000 0.375000 -32.000000 255 255 255 
-3.687500 0.375000 -32.000000 255 255 255 
-3.625000 0.375000 -32.000000 255 255 255 
-3.562500 0.375000 -32.000000 255 255 255 
0.750000 0.375000 -32.000000 189 207 196 
0.812500 0.375000 -32.000000 185 203 191 
0.875000 0.375000 -32.000000 185 203 190 
0.937500 0.375000 -32.000000 187 205 192 
1.000000 0.375000 -32.000000 186 206 191 
1.062500 0.375000 -32.000000 186 206 191 
1.125000 0.375000 -32.000000 185 206 191 
1.435514 0.179439 -15.312150 187 203 189 
1.443831 0.176796 -15.086556 189 205 192 
1.473297 0.176796 -15.086556 188 204 191 
1.505535 0.177122 -15.114391 188 204 191 
1.537893 0.177449 -15.142329 186 202 188 
1.582090 0.179104 -15.283582 186 202 189 
1.687500 0.187500 -16.000000 188 204 191 
3.437500 0.375000 -32.000000 189 206 192 
3.500000 0.375000 -32.000000 187 205 191 
3.562500 0.375000 -32.000000 185 202 188 
2.416667 0.250000 -21.333334 184 202 186 
2.458333 0.250000 -21.333334 185 203 186 
2.500000 0.250000 -21.333334 185 204 187 
1.876923 0.184615 -15.753846 185 203 187 
1.850746 0.179104 -15.283582 186 203 187 
1.852941 0.176471 -15.058824 185 202 185 
1.878899 0.176147 -15.031193 192 206 190 
1.483595 0.136947 -11.686163 151 161 153 
1.506419 0.136947 -11.686163 50 55 67 
1.529244 0.136947 -11.686163 62 64 83 
1.925177 0.097068 -8.283114 212 220 189 
1.914257 0.095713 -8.167498 212 219 188 
1.920635 0.095238 -8.126985 211 216 185 
1.934589 0.095144 -8.118930 213 218 186 
1.942744 0.094768 -8.086871 213 218 185 
1.947007 0.094210 -8.039254 209 214 179 
1.953125 0.093750 -8.000000 210 216 179 
1.968750 0.093750 -8.000000 212 212 178 
1.984375 0.093750 -8.000000 211 209 182 
2.000000 0.093750 -8.000000 190 186 165 
11.250000 0.375000 -32.000000 184 163 118 
11.312500 0.375000 -32.000000 186 168 124 
11.562500 0.375000 -32.000000 189 173 127 
11.625000 0.375000 -32.000000 189 173 129 
11.687500 0.375000 -32.000000 188 170 126 
11.750000 0.375000 -32.000000 180 160 112 
11.812500 0.375000 -32.000000 183 162 102 
16.872726 0.349091 -29.789091 35 30 34 
17.117647 0.352941 -30.117647 35 30 37 
17.176470 0.352941 -30.117647 34 29 40 
17.624060 0.360902 -30.796993 38 32 47 
18.375000 0.375000 -32.000000 30 25 41 
18.437500 0.375000 -32.000000 38 33 50 
11.893462 0.232446 -19.835352 37 33 36 
11.932203 0.232446 -19.835352 34 31 34 
11.970944 0.232446 -19.835352 37 35 39 
11.980677 0.231884 -19.787439 33 32 34 
12.019323 0.231884 -19.787439 34 32 35 
12.028915 0.231325 -19.739759 32 30 34 
12.067470 0.231325 -19.739759 33 31 36 
12.164649 0.232446 -19.835352 35 33 40 
-4.125000 0.312500 -32.000000 255 255 255 
-4.062500 0.312500 -32.000000 255 255 255 
-4.000000 0.312500 -32.000000 255 255 255 
-3.937500 0.312500 -32.000000 255 255 255 
-3.875000 0.312500 -32.000000 255 255 255 
-3.812500 0.312500 -32.000000 255 255 255 
-3.750000 0.312500 -32.000000 255 255 255 
-3.687500 0.312500 -32.000000 255 255 255 
-3.625000 0.312500 -32.000000 255 255 255 
-3.562500 0.312500 -32.000000 255 255 255 
0.750000 0.312500 -32.000000 188 207 194 
0.812500 0.312500 -32.000000 187 207 192 
0.875000 0.312500 -32.000000 186 206 191 
0.937500 0.312500 -32.000000 186 206 190 
1.000000 0.312500 -32.000000 185 207 190 
1.062500 0.312500 -32.000000 185 207 190 
1.125000 0.312500 -32.000000 185 207 190 
1.187500 0.312500 -32.000000 186 208 191 
1.465421 0.149533 -15.312150 188 205 193 
1.478743 0.147874 -15.142329 188 205 193 
1.508318 0.147874 -15.142329 189 205 193 
1.552239 0.149254 -15.283582 186 202 190 
1.582090 0.149254 -15.283582 189 205 193 
1.687500 0.156250 -16.000000 191 206 194 
3.437500 0.312500 -32.000000 191 206 193 
3.500000 0.312500 -32.000000 190 206 190 
3.562500 0.312500 -32.000000 188 203 187 
2.416667 0.208333 -21.333334 188 204 188 
2.458333 0.208333 -21.333334 190 207 191 
2.500000 0.208333 -21.333334 189 207 190 
1.876923 0.153846 -15.753846 186 204 188 
1.850746 0.149254 -15.283582 186 203 186 
1.852941 0.147059 -15.058824 188 204 187 
1.475504 0.115274 -11.804034 193 208 192 
1.485714 0.114286 -11.702857 147 160 149 
1.506419 0.114123 -11.686163 46 52 54 
1.531429 0.114286 -11.702857 62 66 76 
1.925177 0.080890 -8.283114 212 219 185 
1.914257 0.079761 -8.167498 213 219 185 
1.920635 0.079365 -8.126985 214 220 186 
1.932673 0.079208 -8.110891 214 220 186 
1.942744 0.078973 -8.086871 212 220 185 
1.947007 0.078508 -8.039254 211 220 182 
1.953125 0.078125 -8.000000 209 218 180 
1.968750 0.078125 -8.000000 211 212 179 
1.984375 0.078125 -8.000000 213 210 184 
2.000000 0.078125 -8.000000 186 183 160 
15.830389 0.282686 -28.946997 42 38 39 
15.830986 0.281690 -28.845070 41 36 37 
15.831579 0.280702 -28.743860 42 37 38 
15.887719 0.280702 -28.743860 35 30 31 
16.056538 0.282686 -28.946997 36 31 32 
16.113073 0.282686 -28.946997 42 38 39 
16.169611 0.282686 -28.946997 39 35 35 
17.189590 0.297398 -30.453531 37 32 35 
16.690647 0.287770 -29.467627 41 37 43 
16.930908 0.290909 -29.789091 36 32 40 
17.051094 0.291971 -29.897810 33 28 39 
17.235294 0.294118 -30.117647 35 30 42 
11.864735 0.193237 -19.787439 40 38 40 
11.903381 0.193237 -19.787439 34 33 35 
11.942029 0.193237 -19.787439 34 34 37 
11.980677 0.193237 -19.787439 32 30 34 
12.019323 0.193237 -19.787439 36 35 39 
12.028915 0.192771 -19.739759 35 34 39 
12.067470 0.192771 -19.739759 32 30 35 
12.135265 0.193237 -19.787439 36 35 40 
12.173913 0.193237 -19.787439 31 29 34 
12.242130 0.193705 -19.835352 32 31 35 
-4.125000 0.250000 -32.000000 255 255 255 
-4.062500 0.250000 -32.000000 255 255 255 
-4.000000 0.250000 -32.000000 255 255 255 
-3.937500 0.250000 -32.000000 255 255 255 
-3.875000 0.250000 -32.000000 255 255 255 
-3.812500 0.250000 -32.000000 255 255 255 
-3.750000 0.250000 -32.000000 255 255 255 
-3.687500 0.250000 -32.000000 255 255 255 
-3.625000 0.250000 -32.000000 255 255 255 
-3.562500 0.250000 -32.000000 255 255 255 
0.750000 0.250000 -32.000000 189 209 195 
0.812500 0.250000 -32.000000 190 210 195 
0.875000 0.250000 -32.000000 189 211 194 
0.937500 0.250000 -32.000000 188 210 194 
1.000000 0.250000 -32.000000 185 208 191 
1.062500 0.250000 -32.000000 185 208 191 
1.125000 0.250000 -32.000000 186 207 191 
1.187500 0.250000 -32.000000 187 208 191 
1.498127 0.119850 -15.340824 187 205 195 
1.525234 0.119626 -15.312150 188 206 196 
1.552239 0.119403 -15.283582 187 203 193 
1.582090 0.119403 -15.283582 187 204 192 
1.687500 0.125000 -16.000000 189 206 193 
3.437500 0.250000 -32.000000 191 206 194 
3.500000 0.250000 -32.000000 190 206 192 
3.562500 0.250000 -32.000000 189 205 190 
2.416667 0.166667 -21.333334 188 205 189 
2.458333 0.166667 -21.333334 188 205 189 
2.500000 0.166667 -21.333334 188 206 190 
1.876923 0.123077 -15.753846 188 206 189 
1.850746 0.119403 -15.283582 187 205 188 
1.852941 0.117647 -15.058824 188 204 189 
1.477633 0.092352 -11.821068 191 205 191 
1.492109 0.091822 -11.753228 144 157 145 
1.508571 0.091429 -11.702857 49 55 47 
1.535817 0.091691 -11.736390 61 66 68 
1.925177 0.064712 -8.283114 214 221 188 
1.914257 0.063809 -8.167498 212 219 186 
1.920635 0.063492 -8.126985 213 219 187 
1.932673 0.063366 -8.110891 212 218 188 
1.942744 0.063179 -8.086871 211 218 188 
1.947007 0.062807 -8.039254 212 221 187 
1.953125 0.062500 -8.000000 210 218 185 
1.968750 0.062500 -8.000000 210 213 182 
1.984375 0.062500 -8.000000 210 210 188 
2.000000 0.062500 -8.000000 182 179 162 
16.234432 0.234432 -30.007326 43 40 45 
15.942653 0.229391 -29.362007 41 38 43 
15.773851 0.226148 -28.946997 40 35 41 
15.774648 0.225352 -28.845070 40 36 41 
15.775438 0.224561 -28.743860 39 36 40 
15.721254 0.222997 -28.543554 42 39 42 
15.832168 0.223776 -28.643356 39 37 38 
15.943860 0.224561 -28.743860 36 35 35 
16.000000 0.224561 -28.743860 37 37 37 
16.000000 0.223776 -28.643356 39 40 38 
16.169014 0.225352 -28.845070 40 41 39 
16.457144 0.228571 -29.257143 41 41 40 
16.633093 0.230216 -29.467627 39 39 40 
16.453901 0.226950 -29.049644 34 33 40 
16.748201 0.230216 -29.467627 31 29 41 
17.051094 0.233577 -29.897810 35 31 45 
17.624060 0.240602 -30.796993 35 31 46 
11.932203 0.154964 -19.835352 29 28 30 
11.970944 0.154964 -19.835352 30 27 31 
11.980677 0.154589 -19.787439 28 25 29 
12.019323 0.154589 -19.787439 37 33 37 
12.057971 0.154589 -19.787439 39 36 40 
12.096619 0.154589 -19.787439 34 32 35 
12.135265 0.154589 -19.787439 38 36 39 
12.173913 0.154589 -19.787439 34 32 35 
12.183132 0.154217 -19.739759 31 29 32 
12.221686 0.154217 -19.739759 33 32 34 
12.260241 0.154217 -19.739759 28 28 29 
12.298795 0.154217 -19.739759 30 30 31 
-4.125000 0.187500 -32.000000 255 255 255 
-4.062500 0.187500 -32.000000 255 255 255 
-4.000000 0.187500 -32.000000 255 255 255 
-3.937500 0.187500 -32.000000 255 255 255 
-3.875000 0.187500 -32.000000 255 255 255 
-3.812500 0.187500 -32.000000 255 255 255 
-3.750000 0.187500 -32.000000 255 255 255 
-3.687500 0.187500 -32.000000 255 255 255 
-3.625000 0.187500 -32.000000 255 255 255 
-3.562500 0.187500 -32.000000 255 255 255 
0.687500 0.187500 -32.000000 190 210 196 
0.750000 0.187500 -32.000000 191 211 197 
0.812500 0.187500 -32.000000 190 211 196 
0.875000 0.187500 -32.000000 190 211 196 
0.937500 0.187500 -32.000000 190 211 195 
1.000000 0.187500 -32.000000 188 209 194 
1.062500 0.187500 -32.000000 188 209 193 
1.125000 0.187500 -32.000000 189 210 194 
1.187500 0.187500 -32.000000 188 209 192 
1.250000 0.187500 -32.000000 187 209 192 
1.500938 0.090056 -15.369606 187 204 195 
1.530957 0.090056 -15.369606 189 206 196 
1.558052 0.089888 -15.340824 189 205 195 
1.588015 0.089888 -15.340824 189 205 195 
1.687500 0.093750 -16.000000 188 204 192 
3.437500 0.187500 -32.000000 189 206 193 
3.500000 0.187500 -32.000000 189 206 193 
3.562500 0.187500 -32.000000 188 204 190 
2.416667 0.125000 -21.333334 186 202 187 
2.458333 0.125000 -21.333334 186 202 187 
2.500000 0.125000 -21.333334 186 203 188 
1.876923 0.092308 -15.753846 189 206 190 
1.907692 0.092308 -15.753846 188 205 188 
1.852941 0.088235 -15.058824 187 204 186 
1.488372 0.069767 -11.906977 193 210 191 
1.498559 0.069164 -11.804034 146 162 144 
1.515065 0.068867 -11.753228 50 57 42 
1.540230 0.068966 -11.770115 63 67 63 
1.925177 0.048534 -8.283114 213 219 188 
1.914257 0.047856 -8.167498 210 217 186 
1.920635 0.047619 -8.126985 210 216 187 
1.934589 0.047572 -8.118930 211 216 190 
1.944664 0.047431 -8.094862 211 215 190 
1.947007 0.047105 -8.039254 211 215 189 
1.953125 0.046875 -8.000000 211 215 190 
1.968750 0.046875 -8.000000 209 211 187 
1.984375 0.046875 -8.000000 209 212 193 
16.481203 0.180451 -30.796993 43 37 45 
16.356876 0.178439 -30.453531 39 34 41 
16.235294 0.176471 -30.117647 38 33 42 
16.057972 0.173913 -29.681160 46 41 50 
15.942653 0.172043 -29.362007 44 40 49 
15.773851 0.169611 -28.946997 40 36 45 
15.719298 0.168421 -28.743860 42 38 47 
15.720280 0.167832 -28.643356 41 38 46 
15.721254 0.167247 -28.543554 42 40 46 
15.832168 0.167832 -28.643356 40 40 43 
15.888112 0.167832 -28.643356 36 37 38 
16.000000 0.168421 -28.743860 39 40 41 
16.000000 0.167832 -28.643356 42 45 43 
16.169014 0.169014 -28.845070 38 40 38 
16.340425 0.170213 -29.049644 36 38 37 
16.573477 0.172043 -29.362007 35 35 37 
16.453901 0.170213 -29.049644 33 32 41 
16.569395 0.170819 -29.153025 36 34 48 
16.927536 0.173913 -29.681160 39 35 51 
17.235294 0.176471 -30.117647 39 33 51 
11.942029 0.115942 -19.787439 25 24 27 
11.980677 0.115942 -19.787439 28 25 29 
12.019323 0.115942 -19.787439 35 32 36 
12.028915 0.115663 -19.739759 36 33 36 
12.067470 0.115663 -19.739759 37 36 38 
12.106024 0.115663 -19.739759 36 36 39 
12.144578 0.115663 -19.739759 32 31 35 
12.183132 0.115663 -19.739759 33 31 37 
12.192307 0.115385 -19.692308 33 32 38 
12.230769 0.115385 -19.692308 30 29 36 
12.269231 0.115385 -19.692308 34 34 40 
-4.125000 0.125000 -32.000000 255 255 255 
-4.062500 0.125000 -32.000000 255 255 255 
-4.000000 0.125000 -32.000000 255 255 255 
-3.937500 0.125000 -32.000000 255 255 255 
-3.875000 0.125000 -32.000000 255 255 255 
-3.812500 0.125000 -32.000000 255 255 255 
-3.750000 0.125000 -32.000000 255 255 255 
-3.687500 0.125000 -32.000000 255 255 255 
-3.625000 0.125000 -32.000000 255 255 255 
-3.562500 0.125000 -32.000000 255 255 255 
-3.500000 0.125000 -32.000000 255 255 255 
0.687500 0.125000 -32.000000 183 204 189 
0.750000 0.125000 -32.000000 185 206 192 
0.812500 0.125000 -32.000000 184 204 190 
0.875000 0.125000 -32.000000 184 205 190 
0.937500 0.125000 -32.000000 188 209 194 
1.000000 0.125000 -32.000000 188 208 193 
1.062500 0.125000 -32.000000 188 208 193 
1.125000 0.125000 -32.000000 186 206 190 
1.187500 0.125000 -32.000000 185 206 190 
1.503759 0.060150 -15.398497 182 199 187 
1.530957 0.060038 -15.369606 183 200 188 
1.560976 0.060038 -15.369606 183 200 188 
1.590994 0.060038 -15.369606 185 203 190 
1.687500 0.062500 -16.000000 182 201 187 
3.437500 0.125000 -32.000000 177 198 183 
3.500000 0.125000 -32.000000 177 196 181 
3.562500 0.125000 -32.000000 182 198 184 
2.416667 0.083333 -21.333334 183 198 184 
2.458333 0.083333 -21.333334 184 199 185 
2.500000 0.083333 -21.333334 183 199 185 
1.876923 0.061538 -15.753846 182 199 185 
1.850746 0.059701 -15.283582 178 196 180 
1.852941 0.058824 -15.058824 180 198 180 
1.490539 0.046579 -11.924309 189 207 187 
1.509434 0.046444 -11.889695 150 167 149 
1.523810 0.046176 -11.821068 45 53 42 
1.544669 0.046110 -11.804034 60 63 58 
1.925177 0.032356 -8.283114 213 218 186 
1.916168 0.031936 -8.175649 212 218 186 
1.922542 0.031778 -8.135055 213 219 190 
1.934589 0.031715 -8.118930 213 218 191 
1.946588 0.031652 -8.102868 213 217 193 
1.948919 0.031434 -8.047152 210 213 192 
1.953125 0.031250 -8.000000 210 213 192 
1.968750 0.031250 -8.000000 210 213 192 
1.984375 0.031250 -8.000000 209 211 191 
16.875000 0.125000 -32.000000 41 34 39 
16.937500 0.125000 -32.000000 39 32 38 
17.000000 0.125000 -32.000000 39 32 39 
17.062500 0.125000 -32.000000 37 30 37 
16.481203 0.120301 -30.796993 41 34 43 
16.356876 0.118959 -30.453531 42 37 46 
16.295202 0.118081 -30.228783 36 31 40 
16.234432 0.117216 -30.007326 35 31 40 
16.115942 0.115942 -29.681160 38 34 43 
15.886121 0.113879 -29.153025 41 38 48 
15.719298 0.112281 -28.743860 39 35 45 
15.665505 0.111498 -28.543554 38 34 45 
15.721254 0.111498 -28.543554 42 39 49 
15.832168 0.111888 -28.643356 38 36 44 
15.943860 0.112281 -28.743860 39 37 43 
16.000000 0.112281 -28.743860 38 37 42 
16.000000 0.111888 -28.643356 35 34 35 
16.169014 0.112676 -28.845070 28 27 27 
16.516129 0.114695 -29.362007 34 34 34 
16.633093 0.115108 -29.467627 31 30 31 
16.512455 0.113879 -29.153025 39 38 43 
16.628571 0.114286 -29.257143 41 40 48 
16.927536 0.115942 -29.681160 40 37 48 
17.047274 0.116364 -29.789091 42 38 50 
11.913253 0.077108 -19.739759 36 34 38 
11.951807 0.077108 -19.739759 37 35 39 
11.961538 0.076923 -19.692308 41 39 43 
12.000000 0.076923 -19.692308 37 35 40 
12.038462 0.076923 -19.692308 37 36 43 
12.076923 0.076923 -19.692308 39 38 46 
12.115385 0.076923 -19.692308 30 29 39 
12.153846 0.076923 -19.692308 28 26 38 
12.192307 0.076923 -19.692308 32 30 42 
12.230769 0.076923 -19.692308 34 32 44 
12.269231 0.076923 -19.692308 32 30 42 
-4.125000 0.062500 -32.000000 255 255 255 
-4.062500 0.062500 -32.000000 255 255 255 
-4.000000 0.062500 -32.000000 255 255 255 
-3.937500 0.062500 -32.000000 255 255 255 
-3.875000 0.062500 -32.000000 255 255 255 
-3.812500 0.062500 -32.000000 255 255 255 
-3.750000 0.062500 -32.000000 255 255 255 
-3.687500 0.062500 -32.000000 255 255 255 
-3.625000 0.062500 -32.000000 255 255 255 
-3.562500 0.062500 -32.000000 255 255 255 
-3.500000 0.062500 -32.000000 255 255 255 
0.687500 0.062500 -32.000000 184 206 191 
0.750000 0.062500 -32.000000 182 205 188 
0.812500 0.062500 -32.000000 182 204 186 
0.875000 0.062500 -32.000000 182 204 185 
0.937500 0.062500 -32.000000 188 209 191 
1.000000 0.062500 -32.000000 186 207 191 
1.062500 0.062500 -32.000000 184 206 190 
1.125000 0.062500 -32.000000 183 204 188 
1.187500 0.062500 -32.000000 182 203 187 
1.503759 0.030075 -15.398497 183 200 186 
1.533835 0.030075 -15.398497 185 202 189 
1.563910 0.030075 -15.398497 186 202 189 
1.593985 0.030075 -15.398497 184 201 186 
1.687500 0.031250 -16.000000 181 199 182 
3.437500 0.062500 -32.000000 179 198 181 
3.500000 0.062500 -32.000000 184 201 186 
3.562500 0.062500 -32.000000 183 200 186 
2.416667 0.041667 -21.333334 182 198 186 
2.458333 0.041667 -21.333334 183 199 187 
2.500000 0.041667 -21.333334 183 197 186 
1.820896 0.029851 -15.283582 183 197 186 
1.850746 0.029851 -15.283582 184 198 187 
1.856354 0.029466 -15.086556 184 201 187 
1.494890 0.023358 -11.959124 188 205 191 
1.513828 0.023290 -11.924309 146 163 151 
1.530435 0.023188 -11.872464 42 49 43 
1.553623 0.023188 -11.872464 51 52 50 
1.925177 0.016178 -8.283114 215 218 187 
1.916168 0.015968 -8.175649 213 217 187 
1.922542 0.015889 -8.135055 210 216 186 
1.934589 0.015857 -8.118930 214 219 187 
1.946588 0.015826 -8.102868 215 220 190 
1.948919 0.015717 -8.047152 212 216 190 
1.953125 0.015625 -8.000000 210 213 188 
1.968750 0.015625 -8.000000 211 213 188 
1.984375 0.015625 -8.000000 206 209 184 
16.875000 0.062500 -32.000000 42 38 39 
16.937500 0.062500 -32.000000 40 36 38 
17.000000 0.062500 -32.000000 39 35 38 
16.115942 0.057971 -29.681160 39 37 43 
15.718309 0.056338 -28.845070 38 36 42 
9.068826 0.032389 -16.582996 40 37 44 
9.082829 0.032323 -16.549496 40 36 45 
15.776224 0.055944 -28.643356 39 35 44 
15.887719 0.056140 -28.743860 38 35 43 
16.056337 0.056338 -28.845070 36 32 39 
8.521416 0.029795 -15.255121 39 36 40 
8.551210 0.029795 -15.255121 37 33 37 
16.516129 0.057348 -29.362007 31 28 31 
16.753624 0.057971 -29.681160 28 26 27 
16.811594 0.057971 -29.681160 35 34 36 
16.869566 0.057971 -29.681160 40 39 42 
16.927536 0.057971 -29.681160 39 37 41 
17.047274 0.058182 -29.789091 36 34 38 
17.230770 0.058608 -30.007326 35 33 37 
11.846154 0.038462 -19.692308 41 39 41 
11.884615 0.038462 -19.692308 43 41 44 
11.923077 0.038462 -19.692308 37 35 38 
11.961538 0.038462 -19.692308 33 31 35 
12.000000 0.038462 -19.692308 34 32 37 
12.038462 0.038462 -19.692308 31 30 37 
12.076923 0.038462 -19.692308 37 36 45 
12.115385 0.038462 -19.692308 30 28 38 
12.124701 0.038369 -19.645084 32 30 41 
12.192307 0.038462 -19.692308 30 28 39 
12.230769 0.038462 -19.692308 35 33 44 
12.269231 0.038462 -19.692308 36 33 45 
-4.062500 0.000000 -32.000000 255 255 255 
-4.000000 0.000000 -32.000000 255 255 255 
-3.937500 0.000000 -32.000000 255 255 255 
-3.875000 0.000000 -32.000000 255 255 255 
-3.812500 0.000000 -32.000000 255 255 255 
-3.750000 0.000000 -32.000000 255 255 255 
-3.687500 0.000000 -32.000000 255 255 255 
-3.625000 0.000000 -32.000000 255 255 255 
-3.562500 0.000000 -32.000000 255 255 255 
-3.500000 0.000000 -32.000000 255 255 255 
0.687500 0.000000 -32.000000 185 208 191 
0.750000 0.000000 -32.000000 184 207 189 
0.812500 0.000000 -32.000000 185 207 187 
0.875000 0.000000 -32.000000 184 207 186 
0.937500 0.000000 -32.000000 186 208 191 
1.000000 0.000000 -32.000000 185 206 191 
1.062500 0.000000 -32.000000 185 207 192 
1.125000 0.000000 -32.000000 185 207 192 
1.503759 0.000000 -15.398497 185 201 188 
1.533835 0.000000 -15.398497 186 202 190 
1.563910 0.000000 -15.398497 187 204 191 
1.593985 0.000000 -15.398497 185 202 188 
1.687500 0.000000 -16.000000 183 200 184 
3.437500 0.000000 -32.000000 185 202 185 
3.500000 0.000000 -32.000000 188 204 189 
3.562500 0.000000 -32.000000 185 201 187 
2.416667 0.000000 -21.333334 186 201 189 
2.458333 0.000000 -21.333334 186 200 189 
2.500000 0.000000 -21.333334 184 197 187 
1.876923 0.000000 -15.753846 184 197 188 
1.850746 0.000000 -15.283582 186 200 191 
1.856354 0.000000 -15.086556 188 204 194 
1.497076 0.000000 -11.976608 192 210 200 
1.513828 0.000000 -11.924309 146 166 157 
1.532656 0.000000 -11.889695 40 49 46 
1.555878 0.000000 -11.889695 49 52 54 
1.946392 0.000000 -8.445361 213 221 190 
1.923232 0.000000 -8.274748 217 219 190 
1.916168 0.000000 -8.175649 215 217 188 
1.922542 0.000000 -8.135055 213 216 184 
1.934589 0.000000 -8.118930 216 220 186 
1.946588 0.000000 -8.102868 215 218 186 
1.948919 0.000000 -8.047152 213 216 185 
1.953125 0.000000 -8.000000 210 212 182 
1.968750 0.000000 -8.000000 211 213 182 
1.984375 0.000000 -8.000000 209 211 179 
9.022312 0.000000 -16.616632 45 43 46 
9.036437 0.000000 -16.582996 42 40 44 
9.050505 0.000000 -16.549496 39 36 40 
9.064516 0.000000 -16.516129 40 37 42 
9.096774 0.000000 -16.516129 43 39 45 
8.491620 0.000000 -15.255121 37 32 40 
8.474074 0.000000 -15.170370 36 29 38 
8.503704 0.000000 -15.170370 38 31 40 
8.533334 0.000000 -15.170370 34 29 37 
17.117647 0.000000 -30.117647 34 31 38 
17.176470 0.000000 -30.117647 35 33 39 
17.172161 0.000000 -30.007326 34 33 37 
17.230770 0.000000 -30.007326 34 33 36 
17.352942 0.000000 -30.117647 34 34 35 
11.807693 0.000000 -19.692308 36 34 35 
11.846154 0.000000 -19.692308 36 34 35 
11.884615 0.000000 -19.692308 30 28 30 
11.923077 0.000000 -19.692308 37 35 38 
11.961538 0.000000 -19.692308 31 29 32 
12.000000 0.000000 -19.692308 34 31 35 
12.038462 0.000000 -19.692308 37 34 39 
12.076923 0.000000 -19.692308 35 32 40 
12.115385 0.000000 -19.692308 34 31 39 
12.124701 0.000000 -19.645084 31 28 37 
12.192307 0.000000 -19.692308 31 28 38 
12.230769 0.000000 -19.692308 32 29 39 
12.239808 0.000000 -19.645084 30 26 37 
-4.062500 -0.062500 -32.000000 255 255 255 
-4.000000 -0.062500 -32.000000 255 255 255 
-3.937500 -0.062500 -32.000000 255 255 255 
-3.875000 -0.062500 -32.000000 255 255 255 
-3.812500 -0.062500 -32.000000 255 255 255 
-3.750000 -0.062500 -32.000000 255 255 255 
-3.687500 -0.062500 -32.000000 255 255 255 
-3.625000 -0.062500 -32.000000 255 255 255 
-3.562500 -0.062500 -32.000000 255 255 255 
-3.500000 -0.062500 -32.000000 255 255 255 
-3.437500 -0.062500 -32.000000 255 255 255 
0.687500 -0.062500 -32.000000 186 209 193 
0.750000 -0.062500 -32.000000 186 208 193 
0.812500 -0.062500 -32.000000 188 209 192 
0.875000 -0.062500 -32.000000 189 210 193 
0.937500 -0.062500 -32.000000 192 212 197 
1.000000 -0.062500 -32.000000 187 207 194 
1.062500 -0.062500 -32.000000 186 207 194 
1.503759 -0.030075 -15.398497 188 205 189 
1.533835 -0.030075 -15.398497 187 204 189 
1.563910 -0.030075 -15.398497 188 205 191 
1.593985 -0.030075 -15.398497 186 204 189 
1.687500 -0.031250 -16.000000 186 204 190 
3.437500 -0.062500 -32.000000 189 206 192 
3.500000 -0.062500 -32.000000 188 204 191 
3.562500 -0.062500 -32.000000 187 202 189 
2.416667 -0.041667 -21.333334 189 203 190 
2.458333 -0.041667 -21.333334 187 200 189 
2.500000 -0.041667 -21.333334 187 200 189 
2.515464 -0.041237 -21.113401 188 201 190 
2.461539 -0.039702 -20.327543 187 201 190 
2.507463 -0.039801 -20.378109 187 202 192 
2.547264 -0.039801 -20.378109 190 206 196 
1.513828 -0.023290 -11.924309 149 164 156 
1.534884 -0.023256 -11.906977 42 49 47 
1.558140 -0.023256 -11.906977 43 46 54 
1.928499 -0.016343 -8.367723 210 218 185 
1.923232 -0.016162 -8.274748 214 221 187 
1.916168 -0.015968 -8.175649 213 218 185 
1.922542 -0.015889 -8.135055 213 217 184 
1.934589 -0.015857 -8.118930 215 219 186 
1.946588 -0.015826 -8.102868 214 218 186 
1.948919 -0.015717 -8.047152 214 216 185 
1.953125 -0.015625 -8.000000 215 216 185 
1.968750 -0.015625 -8.000000 213 214 179 
1.984375 -0.015625 -8.000000 212 212 173 
15.750000 -0.062500 -32.000000 41 34 42 
15.812500 -0.062500 -32.000000 42 36 45 
15.875000 -0.062500 -32.000000 41 35 45 
15.937500 -0.062500 -32.000000 44 38 50 
16.000000 -0.062500 -32.000000 40 34 47 
16.062500 -0.062500 -32.000000 39 35 48 
8.939271 -0.032389 -16.582996 39 34 38 
8.971660 -0.032389 -16.582996 41 36 40 
8.985859 -0.032323 -16.549496 40 36 40 
9.018182 -0.032323 -16.549496 43 40 43 
9.032258 -0.032258 -16.516129 42 39 42 
9.064516 -0.032258 -16.516129 42 39 42 
9.096774 -0.032258 -16.516129 44 40 44 
8.460112 -0.029685 -15.198516 41 35 42 
8.474074 -0.029630 -15.170370 34 27 35 
8.472324 -0.029520 -15.114391 37 30 38 
8.501845 -0.029520 -15.114391 36 29 38 
17.176470 -0.058824 -30.117647 32 30 37 
17.235294 -0.058824 -30.117647 30 29 36 
17.294117 -0.058824 -30.117647 31 31 36 
17.352942 -0.058824 -30.117647 32 34 37 
17.411764 -0.058824 -30.117647 37 39 42 
17.406593 -0.058608 -30.007326 32 34 36 
11.807693 -0.038462 -19.692308 26 25 29 
11.846154 -0.038462 -19.692308 31 31 34 
11.884615 -0.038462 -19.692308 32 32 35 
11.923077 -0.038462 -19.692308 32 32 35 
11.961538 -0.038462 -19.692308 30 29 33 
12.000000 -0.038462 -19.692308 38 35 40 
12.038462 -0.038462 -19.692308 35 31 36 
12.076923 -0.038462 -19.692308 32 28 35 
12.115385 -0.038462 -19.692308 30 26 34 
12.153846 -0.038462 -19.692308 28 24 33 
12.192307 -0.038462 -19.692308 30 26 36 
12.230769 -0.038462 -19.692308 31 27 36 
12.269231 -0.038462 -19.692308 27 23 33 
-4.000000 -0.125000 -32.000000 255 255 255 
-3.937500 -0.125000 -32.000000 255 255 255 
-3.875000 -0.125000 -32.000000 255 255 255 
-3.812500 -0.125000 -32.000000 255 255 255 
-3.750000 -0.125000 -32.000000 255 255 255 
-3.687500 -0.125000 -32.000000 255 255 255 
-3.625000 -0.125000 -32.000000 255 255 255 
-3.562500 -0.125000 -32.000000 255 255 255 
-3.500000 -0.125000 -32.000000 255 255 255 
-3.437500 -0.125000 -32.000000 255 255 255 
0.750000 -0.125000 -32.000000 186 207 193 
0.812500 -0.125000 -32.000000 188 209 194 
0.875000 -0.125000 -32.000000 190 210 197 
0.937500 -0.125000 -32.000000 194 214 201 
1.000000 -0.125000 -32.000000 191 211 199 
1.062500 -0.125000 -32.000000 186 206 194 
1.500938 -0.060038 -15.369606 184 202 179 
1.530957 -0.060038 -15.369606 182 200 180 
1.563910 -0.060150 -15.398497 185 203 184 
1.593985 -0.060150 -15.398497 183 201 183 
1.687500 -0.062500 -16.000000 182 200 185 
3.437500 -0.125000 -32.000000 186 202 189 
3.500000 -0.125000 -32.000000 186 201 188 
3.562500 -0.125000 -32.000000 187 201 189 
2.416667 -0.083333 -21.333334 187 200 188 
2.458333 -0.083333 -21.333334 185 198 186 
2.500000 -0.083333 -21.333334 188 200 189 
2.521964 -0.082687 -21.167959 188 201 188 
2.467662 -0.079602 -20.378109 186 200 187 
2.584615 -0.082051 -21.005129 182 196 183 
1.927909 -0.032956 -8.436664 209 220 186 
1.928499 -0.032686 -8.367723 209 219 185 
1.923232 -0.032323 -8.274748 213 222 188 
1.920000 -0.032000 -8.192000 212 220 186 
1.924453 -0.031809 -8.143141 212 217 185 
1.936508 -0.031746 -8.126985 213 217 186 
1.946588 -0.031652 -8.102868 215 218 188 
1.948919 -0.031434 -8.047152 215 215 186 
1.955034 -0.031281 -8.007820 217 216 186 
1.968750 -0.031250 -8.000000 214 214 179 
1.984375 -0.031250 -8.000000 213 215 171 
15.437500 -0.125000 -32.000000 47 38 46 
15.500000 -0.125000 -32.000000 46 38 45 
15.562500 -0.125000 -32.000000 48 39 47 
15.625000 -0.125000 -32.000000 45 37 45 
15.687500 -0.125000 -32.000000 42 35 43 
15.750000 -0.125000 -32.000000 39 33 42 
15.812500 -0.125000 -32.000000 38 33 43 
15.875000 -0.125000 -32.000000 38 32 44 
15.937500 -0.125000 -32.000000 39 34 49 
16.000000 -0.125000 -32.000000 37 33 48 
16.062500 -0.125000 -32.000000 39 34 50 
8.806452 -0.064516 -16.516129 51 48 53 
8.838710 -0.064516 -16.516129 44 39 52 
8.870968 -0.064516 -16.516129 45 38 53 
8.921212 -0.064646 -16.549496 40 32 45 
8.953535 -0.064646 -16.549496 40 32 44 
8.967742 -0.064516 -16.516129 35 28 38 
9.000000 -0.064516 -16.516129 42 36 43 
9.032258 -0.064516 -16.516129 38 33 38 
9.064516 -0.064516 -16.516129 39 36 39 
8.525329 -0.060038 -15.369606 40 37 42 
8.444445 -0.059259 -15.170370 36 33 38 
8.442804 -0.059041 -15.114391 32 28 34 
8.472324 -0.059041 -15.114391 37 34 40 
8.501845 -0.059041 -15.114391 42 38 48 
17.239853 -0.118081 -30.228783 33 32 41 
17.235294 -0.117647 -30.117647 33 34 41 
17.294117 -0.117647 -30.117647 34 35 41 
17.352942 -0.117647 -30.117647 33 35 40 
17.347986 -0.117216 -30.007326 34 35 40 
17.406593 -0.117216 -30.007326 33 35 39 
11.769231 -0.076923 -19.692308 35 35 37 
11.807693 -0.076923 -19.692308 29 29 30 
11.846154 -0.076923 -19.692308 33 34 36 
11.913253 -0.077108 -19.739759 34 35 38 
11.951807 -0.077108 -19.739759 25 25 28 
11.961538 -0.076923 -19.692308 28 28 31 
12.000000 -0.076923 -19.692308 30 27 32 
12.038462 -0.076923 -19.692308 29 25 31 
12.076923 -0.076923 -19.692308 32 27 34 
12.115385 -0.076923 -19.692308 28 24 31 
12.153846 -0.076923 -19.692308 30 25 34 
12.192307 -0.076923 -19.692308 30 26 35 
12.230769 -0.076923 -19.692308 34 30 39 
12.239808 -0.076739 -19.645084 32 28 39 
-4.000000 -0.187500 -32.000000 255 255 255 
-3.937500 -0.187500 -32.000000 255 255 255 
-3.875000 -0.187500 -32.000000 255 255 255 
-3.812500 -0.187500 -32.000000 255 255 255 
-3.750000 -0.187500 -32.000000 255 255 255 
-3.687500 -0.187500 -32.000000 255 255 255 
-3.625000 -0.187500 -32.000000 255 255 255 
-3.562500 -0.187500 -32.000000 255 255 255 
-3.500000 -0.187500 -32.000000 255 255 255 
-3.437500 -0.187500 -32.000000 255 255 255 
-3.375000 -0.187500 -32.000000 255 255 255 
0.750000 -0.187500 -32.000000 188 208 195 
0.812500 -0.187500 -32.000000 186 206 193 
0.875000 -0.187500 -32.000000 187 207 194 
0.937500 -0.187500 -32.000000 188 208 195 
1.000000 -0.187500 -32.000000 186 206 193 
1.062500 -0.187500 -32.000000 182 203 190 
1.086792 -0.181132 -30.913208 182 204 190 
1.495327 -0.089720 -15.312150 180 197 176 
1.528090 -0.089888 -15.340824 181 199 178 
1.563910 -0.090226 -15.398497 184 202 182 
1.593985 -0.090226 -15.398497 181 198 181 
1.687500 -0.093750 -16.000000 180 197 181 
3.437500 -0.187500 -32.000000 182 198 184 
3.500000 -0.187500 -32.000000 183 197 185 
3.562500 -0.187500 -32.000000 185 198 186 
2.416667 -0.125000 -21.333334 186 199 187 
2.458333 -0.125000 -21.333334 185 197 186 
2.500000 -0.125000 -21.333334 184 196 186 
2.541667 -0.125000 -21.333334 184 197 185 
2.543590 -0.123077 -21.005129 184 198 185 
2.591260 -0.123393 -21.059126 182 197 183 
1.927909 -0.049434 -8.436664 211 221 186 
1.928499 -0.049030 -8.367723 212 222 188 
1.925177 -0.048534 -8.283114 212 223 189 
1.921922 -0.048048 -8.200200 212 220 188 
1.926368 -0.047761 -8.151244 213 217 187 
1.936508 -0.047619 -8.126985 214 217 187 
1.948515 -0.047525 -8.110891 216 216 189 
1.948919 -0.047151 -8.047152 214 213 187 
1.955034 -0.046921 -8.007820 215 214 188 
1.968750 -0.046875 -8.000000 214 213 180 
1.984375 -0.046875 -8.000000 210 214 169 
15.125000 -0.187500 -32.000000 55 43 51 
15.187500 -0.187500 -32.000000 48 38 44 
15.250000 -0.187500 -32.000000 44 35 41 
15.312500 -0.187500 -32.000000 48 39 45 
15.375000 -0.187500 -32.000000 45 36 42 
15.437500 -0.187500 -32.000000 44 36 42 
15.500000 -0.187500 -32.000000 43 35 42 
15.562500 -0.187500 -32.000000 49 43 50 
15.625000 -0.187500 -32.000000 44 38 45 
15.687500 -0.187500 -32.000000 38 33 39 
15.750000 -0.187500 -32.000000 38 34 41 
8.709678 -0.096774 -16.516129 41 36 42 
8.741936 -0.096774 -16.516129 46 43 49 
8.774194 -0.096774 -16.516129 47 44 49 
8.788733 -0.096579 -16.482897 46 43 47 
8.838710 -0.096774 -16.516129 42 38 50 
8.870968 -0.096774 -16.516129 41 35 51 
8.903226 -0.096774 -16.516129 43 37 50 
8.935484 -0.096774 -16.516129 40 34 45 
8.967742 -0.096774 -16.516129 38 34 44 
9.000000 -0.096774 -16.516129 43 38 46 
9.032258 -0.096774 -16.516129 36 31 37 
8.430427 -0.089054 -15.198516 41 36 42 
8.428836 -0.088725 -15.142329 35 30 36 
8.427256 -0.088398 -15.086556 38 32 39 
8.456722 -0.088398 -15.086556 40 34 42 
8.501845 -0.088561 -15.114391 39 32 43 
17.239853 -0.177122 -30.228783 35 33 42 
17.235294 -0.176471 -30.117647 35 35 42 
17.294117 -0.176471 -30.117647 33 35 40 
17.289377 -0.175824 -30.007326 34 35 39 
17.411764 -0.176471 -30.117647 33 34 40 
17.470589 -0.176471 -30.117647 33 35 42 
11.769231 -0.115385 -19.692308 38 37 41 
11.807693 -0.115385 -19.692308 33 32 34 
11.874699 -0.115663 -19.739759 32 31 34 
11.913253 -0.115663 -19.739759 32 32 34 
11.951807 -0.115663 -19.739759 31 30 33 
11.990361 -0.115663 -19.739759 32 32 34 
12.000000 -0.115385 -19.692308 29 28 31 
12.038462 -0.115385 -19.692308 28 25 30 
12.076923 -0.115385 -19.692308 35 32 37 
12.115385 -0.115385 -19.692308 37 33 39 
12.153846 -0.115385 -19.692308 35 31 39 
12.192307 -0.115385 -19.692308 31 27 35 
12.201439 -0.115108 -19.645084 33 28 36 
12.239808 -0.115108 -19.645084 33 28 37 
-3.937500 -0.250000 -32.000000 255 255 255 
-3.875000 -0.250000 -32.000000 255 255 255 
-3.812500 -0.250000 -32.000000 255 255 255 
-3.750000 -0.250000 -32.000000 255 255 255 
-3.687500 -0.250000 -32.000000 255 255 255 
-3.625000 -0.250000 -32.000000 255 255 255 
-3.562500 -0.250000 -32.000000 255 255 255 
-3.500000 -0.250000 -32.000000 255 255 255 
-3.437500 -0.250000 -32.000000 255 255 255 
-3.375000 -0.250000 -32.000000 255 255 255 
-3.312500 -0.250000 -32.000000 255 255 255 
0.687500 -0.250000 -32.000000 189 209 197 
0.750000 -0.250000 -32.000000 189 209 197 
0.812500 -0.250000 -32.000000 187 206 194 
0.875000 -0.250000 -32.000000 188 207 194 
0.937500 -0.250000 -32.000000 187 206 192 
1.000000 -0.250000 -32.000000 184 204 189 
1.022556 -0.240602 -30.796993 183 204 189 
1.070632 -0.237918 -30.453531 184 206 191 
1.117647 -0.235294 -30.117647 183 206 193 
1.176471 -0.235294 -30.117647 180 203 190 
1.230769 -0.234432 -30.007326 180 203 190 
1.289377 -0.234432 -30.007326 184 204 193 
1.492537 -0.119403 -15.283582 187 200 183 
1.525234 -0.119626 -15.312150 187 200 185 
1.563910 -0.120301 -15.398497 187 200 185 
1.596987 -0.120527 -15.427495 185 198 184 
1.687500 -0.125000 -16.000000 185 199 185 
3.437500 -0.250000 -32.000000 184 198 184 
3.500000 -0.250000 -32.000000 183 197 183 
3.562500 -0.250000 -32.000000 185 199 185 
2.416667 -0.166667 -21.333334 186 199 187 
2.458333 -0.166667 -21.333334 185 198 186 
2.500000 -0.166667 -21.333334 184 196 185 
2.541667 -0.166667 -21.333334 185 198 186 
2.550128 -0.164524 -21.059126 186 200 187 
2.591260 -0.164524 -21.059126 183 197 185 
1.927909 -0.065911 -8.436664 209 219 184 
1.928499 -0.065373 -8.367723 211 220 189 
1.927125 -0.064777 -8.291498 211 221 190 
1.923848 -0.064128 -8.208417 212 219 189 
1.928287 -0.063745 -8.159363 214 217 188 
1.936508 -0.063492 -8.126985 216 216 188 
1.948515 -0.063366 -8.110891 216 216 189 
1.948919 -0.062868 -8.047152 213 213 187 
1.955034 -0.062561 -8.007820 212 212 186 
1.968750 -0.062500 -8.000000 212 213 180 
1.984375 -0.062500 -8.000000 208 212 175 
14.875000 -0.250000 -32.000000 42 32 43 
14.937500 -0.250000 -32.000000 49 39 51 
15.000000 -0.250000 -32.000000 50 40 51 
15.062500 -0.250000 -32.000000 50 41 49 
15.125000 -0.250000 -32.000000 49 41 48 
15.187500 -0.250000 -32.000000 48 40 47 
15.250000 -0.250000 -32.000000 47 39 46 
15.312500 -0.250000 -32.000000 49 42 48 
15.375000 -0.250000 -32.000000 45 39 45 
15.437500 -0.250000 -32.000000 45 39 45 
15.500000 -0.250000 -32.000000 42 36 43 
15.562500 -0.250000 -32.000000 41 35 41 
15.625000 -0.250000 -32.000000 41 36 42 
15.687500 -0.250000 -32.000000 42 37 43 
8.677420 -0.129032 -16.516129 42 36 47 
8.709678 -0.129032 -16.516129 38 33 39 
8.741936 -0.129032 -16.516129 39 35 38 
8.774194 -0.129032 -16.516129 38 34 36 
8.788733 -0.128773 -16.482897 44 40 41 
8.820926 -0.128773 -16.482897 45 41 45 
8.870968 -0.129032 -16.516129 42 38 44 
8.903226 -0.129032 -16.516129 44 39 44 
8.935484 -0.129032 -16.516129 40 36 41 
8.967742 -0.129032 -16.516129 40 37 43 
9.000000 -0.129032 -16.516129 47 43 50 
8.416357 -0.118959 -15.226766 35 30 39 
8.383764 -0.118081 -15.114391 36 30 37 
8.397790 -0.117864 -15.086556 36 28 36 
8.411765 -0.117647 -15.058824 38 30 38 
8.441176 -0.117647 -15.058824 40 30 38 
8.486188 -0.117864 -15.086556 35 24 33 
17.239853 -0.236162 -30.228783 38 33 39 
17.235294 -0.235294 -30.117647 36 33 39 
17.294117 -0.235294 -30.117647 29 29 33 
17.226278 -0.233577 -29.897810 30 31 35 
17.347986 -0.234432 -30.007326 33 34 40 
11.730769 -0.153846 -19.692308 43 38 44 
11.769231 -0.153846 -19.692308 42 38 43 
11.807693 -0.153846 -19.692308 35 31 35 
11.874699 -0.154217 -19.739759 34 30 33 
11.913253 -0.154217 -19.739759 35 33 36 
11.951807 -0.154217 -19.739759 33 31 35 
11.990361 -0.154217 -19.739759 31 30 33 
12.000000 -0.153846 -19.692308 29 27 32 
12.038462 -0.153846 -19.692308 31 28 34 
12.076923 -0.153846 -19.692308 37 34 40 
12.115385 -0.153846 -19.692308 33 29 35 
12.153846 -0.153846 -19.692308 33 29 35 
12.163070 -0.153477 -19.645084 37 32 38 
12.201439 -0.153477 -19.645084 36 31 36 
12.210526 -0.153110 -19.598085 38 32 38 
-3.937500 -0.312500 -32.000000 255 255 255 
-3.875000 -0.312500 -32.000000 255 255 255 
-3.812500 -0.312500 -32.000000 255 255 255 
-3.750000 -0.312500 -32.000000 255 255 255 
-3.687500 -0.312500 -32.000000 255 255 255 
-3.625000 -0.312500 -32.000000 255 255 255 
-3.562500 -0.312500 -32.000000 255 255 255 
-3.500000 -0.312500 -32.000000 255 255 255 
-3.437500 -0.312500 -32.000000 255 255 255 
-3.375000 -0.312500 -32.000000 255 255 255 
-3.312500 -0.312500 -32.000000 255 255 255 
-3.250000 -0.312500 -32.000000 255 255 255 
0.687500 -0.312500 -32.000000 189 209 198 
0.750000 -0.312500 -32.000000 187 207 195 
0.812500 -0.312500 -32.000000 185 203 192 
0.875000 -0.312500 -32.000000 190 208 196 
0.937500 -0.312500 -32.000000 189 207 194 
1.000000 -0.312500 -32.000000 187 206 193 
1.022556 -0.300752 -30.796993 185 205 192 
1.070632 -0.297398 -30.453531 185 206 193 
1.117647 -0.294118 -30.117647 185 206 194 
1.176471 -0.294118 -30.117647 183 203 192 
1.230769 -0.293040 -30.007326 185 205 193 
1.284672 -0.291971 -29.897810 187 206 195 
1.343066 -0.291971 -29.897810 188 205 196 
2.057743 -0.209974 -21.501312 184 198 182 
1.492537 -0.149254 -15.283582 188 200 185 
1.522388 -0.149254 -15.283582 189 201 187 
1.563910 -0.150376 -15.398497 189 201 188 
1.596987 -0.150659 -15.427495 189 201 187 
1.687500 -0.156250 -16.000000 186 199 186 
3.437500 -0.312500 -32.000000 186 200 186 
3.500000 -0.312500 -32.000000 186 200 185 
3.562500 -0.312500 -32.000000 185 200 185 
2.416667 -0.208333 -21.333334 185 200 186 
2.458333 -0.208333 -21.333334 183 198 185 
2.500000 -0.208333 -21.333334 181 196 184 
2.541667 -0.208333 -21.333334 182 197 187 
2.550128 -0.205656 -21.059126 185 200 190 
2.591260 -0.205656 -21.059126 186 200 192 
1.928499 -0.081716 -8.367723 213 220 191 
1.927125 -0.080972 -8.291498 213 220 192 
1.923848 -0.080160 -8.208417 215 221 191 
1.928287 -0.079681 -8.159363 214 218 188 
1.936508 -0.079365 -8.126985 212 217 186 
1.948515 -0.079208 -8.110891 211 216 185 
1.948919 -0.078585 -8.047152 210 215 186 
1.953125 -0.078125 -8.000000 210 216 187 
1.968750 -0.078125 -8.000000 208 216 184 
1.984375 -0.078125 -8.000000 205 213 179 
14.875000 -0.312500 -32.000000 47 39 48 
14.937500 -0.312500 -32.000000 47 39 49 
15.000000 -0.312500 -32.000000 42 33 45 
15.062500 -0.312500 -32.000000 45 36 46 
15.125000 -0.312500 -32.000000 44 36 45 
15.187500 -0.312500 -32.000000 44 36 45 
15.250000 -0.312500 -32.000000 47 39 47 
15.312500 -0.312500 -32.000000 50 44 51 
15.375000 -0.312500 -32.000000 45 40 46 
15.437500 -0.312500 -32.000000 45 40 45 
15.500000 -0.312500 -32.000000 42 38 42 
12.687898 -0.254777 -26.089172 41 37 42 
12.738853 -0.254777 -26.089172 40 36 41 
12.871795 -0.256410 -26.256411 37 33 38 
8.645162 -0.161290 -16.516129 39 34 56 
8.677420 -0.161290 -16.516129 44 39 56 
8.709678 -0.161290 -16.516129 41 37 49 
8.741936 -0.161290 -16.516129 40 36 43 
8.774194 -0.161290 -16.516129 44 41 45 
8.806452 -0.161290 -16.516129 44 41 44 
8.838710 -0.161290 -16.516129 47 43 45 
8.870968 -0.161290 -16.516129 42 37 41 
8.903226 -0.161290 -16.516129 41 35 40 
8.935484 -0.161290 -16.516129 42 36 42 
8.967742 -0.161290 -16.516129 42 35 43 
8.369686 -0.147874 -15.142329 39 30 39 
8.383764 -0.147601 -15.114391 33 24 33 
8.382353 -0.147059 -15.058824 36 27 35 
8.411765 -0.147059 -15.058824 40 30 38 
8.456722 -0.147330 -15.086556 40 29 37 
17.235294 -0.294118 -30.117647 36 30 39 
17.230770 -0.293040 -30.007326 34 31 39 
17.163637 -0.290909 -29.789091 33 32 40 
17.221819 -0.290909 -29.789091 32 32 41 
11.730769 -0.192308 -19.692308 41 34 41 
11.769231 -0.192308 -19.692308 39 32 39 
11.807693 -0.192308 -19.692308 46 40 45 
11.846154 -0.192308 -19.692308 45 40 44 
11.913253 -0.192771 -19.739759 38 34 36 
11.951807 -0.192771 -19.739759 32 29 33 
11.961538 -0.192308 -19.692308 32 29 35 
12.000000 -0.192308 -19.692308 28 24 36 
12.038462 -0.192308 -19.692308 35 31 42 
12.076923 -0.192308 -19.692308 32 28 39 
12.115385 -0.192308 -19.692308 31 27 37 
12.124701 -0.191847 -19.645084 38 33 43 
12.133971 -0.191388 -19.598085 36 31 40 
12.172249 -0.191388 -19.598085 38 32 40 
12.181384 -0.190931 -19.551313 42 35 43 
-3.875000 -0.375000 -32.000000 255 255 255 
-3.812500 -0.375000 -32.000000 255 255 255 
-3.750000 -0.375000 -32.000000 255 255 255 
-3.687500 -0.375000 -32.000000 255 255 255 
-3.625000 -0.375000 -32.000000 255 255 255 
-3.562500 -0.375000 -32.000000 255 255 255 
-3.500000 -0.375000 -32.000000 255 255 255 
-3.437500 -0.375000 -32.000000 255 255 255 
-3.375000 -0.375000 -32.000000 255 255 255 
-3.312500 -0.375000 -32.000000 255 255 255 
-3.250000 -0.375000 -32.000000 255 255 255 
-3.187500 -0.375000 -32.000000 255 255 255 
0.687500 -0.375000 -32.000000 189 208 196 
0.750000 -0.375000 -32.000000 187 206 195 
0.812500 -0.375000 -32.000000 185 204 192 
0.875000 -0.375000 -32.000000 188 207 194 
0.937500 -0.375000 -32.000000 188 206 194 
1.000000 -0.375000 -32.000000 189 207 194 
1.022556 -0.360902 -30.796993 189 207 194 
1.070632 -0.356877 -30.453531 188 206 194 
1.121771 -0.354244 -30.228783 188 206 193 
1.176471 -0.352941 -30.117647 186 204 191 
1.235294 -0.352941 -30.117647 190 207 195 
1.289377 -0.351648 -30.007326 188 205 193 
1.343066 -0.350365 -29.897810 186 202 192 
1.401460 -0.350365 -29.897810 188 205 195 
1.973753 -0.251969 -21.501312 183 201 184 
2.015748 -0.251969 -21.501312 184 199 183 
2.057743 -0.251969 -21.501312 185 198 183 
1.492537 -0.179104 -15.283582 185 199 184 
1.522388 -0.179104 -15.283582 187 199 186 
1.563910 -0.180451 -15.398497 189 201 188 
1.596987 -0.180791 -15.427495 190 203 189 
1.687500 -0.187500 -16.000000 188 203 189 
3.437500 -0.375000 -32.000000 187 203 188 
3.500000 -0.375000 -32.000000 188 204 189 
3.562500 -0.375000 -32.000000 186 202 187 
2.416667 -0.250000 -21.333334 185 200 186 
2.458333 -0.250000 -21.333334 182 197 185 
2.500000 -0.250000 -21.333334 181 196 185 
2.541667 -0.250000 -21.333334 183 199 189 
2.543590 -0.246154 -21.005129 184 200 190 
2.501241 -0.238213 -20.327543 183 198 190 
1.928499 -0.098059 -8.367723 212 219 189 
1.927125 -0.097166 -8.291498 212 218 189 
1.925777 -0.096289 -8.216650 215 221 191 
1.928287 -0.095618 -8.159363 214 220 187 
1.936508 -0.095238 -8.126985 211 218 184 
1.948515 -0.095050 -8.110891 210 217 183 
1.948919 -0.094303 -8.047152 209 216 186 
1.953125 -0.093750 -8.000000 208 217 189 
1.966829 -0.093659 -7.992195 207 219 187 
1.982439 -0.093659 -7.992195 205 217 177 
14.812500 -0.375000 -32.000000 44 36 45 
14.875000 -0.375000 -32.000000 47 38 48 
14.937500 -0.375000 -32.000000 45 36 45 
15.000000 -0.375000 -32.000000 42 33 42 
12.241270 -0.304762 -26.006350 45 37 46 
